-86.033997 27.257200 -391.350006 0.008261 0.991513 0.129744 3.000000
-114.986000 14.145500 -179.699005 -0.928574 -0.366592 -0.057980 4.000000
-69.437599 1.463800 -441.040009 0.248766 -0.967407 -0.047315 4.000000
-77.792503 27.385000 -140.498993 0.655378 0.068847 0.752157 4.000000
-58.340599 5.708200 -499.213989 0.258751 -0.714634 -0.649882 4.000000
-84.290298 5.280200 -239.192001 0.935580 -0.342042 0.087738 3.000000
-103.458000 31.863800 -110.594002 0.855267 -0.446823 0.262428 4.000000
-74.361000 20.704599 -386.308014 0.681805 0.719809 0.130446 3.000000
-83.735100 18.042500 -309.670013 0.842888 0.526979 0.108776 3.000000
-44.732700 44.483299 -470.276001 0.319408 0.034744 0.946980 4.000000
-96.067703 -4.682800 -108.994003 -0.620930 -0.781068 -0.066175 4.000000
-94.450104 24.034100 -227.136993 0.562999 0.824982 -0.049370 3.000000
-94.029602 3.419400 -464.718994 -0.534021 -0.810919 0.239232 4.000000
-68.612503 21.567400 -413.795990 0.664255 0.722062 0.193371 4.000000
-93.741203 21.169901 -326.597992 -0.572882 0.819518 -0.014026 3.000000
-108.911003 41.891300 -128.697006 -0.288640 0.945365 -0.151567 4.000000
-60.412899 23.974600 -103.057999 0.508718 0.859182 -0.054891 1.000000
-104.311996 40.730000 -119.882004 0.380337 0.881313 0.280412 1.000000
-86.454498 23.726999 -332.526001 0.200380 0.979634 0.012866 3.000000
-75.988403 1.293200 -348.410004 0.814874 -0.574633 0.076003 3.000000
-75.682701 36.230701 -493.295990 0.783953 0.548694 -0.290434 4.000000
-62.635300 37.764999 -469.074005 -0.160467 0.822479 0.545691 4.000000
-97.253700 0.269400 -196.940994 0.108620 -0.988389 0.106244 4.000000
-92.275803 -5.078200 -274.901001 0.091981 -0.995431 0.025621 3.000000
-122.709999 10.165300 -107.207001 -0.523054 -0.808079 0.270967 4.000000
-87.124496 -2.341500 -389.546997 -0.187678 -0.980156 -0.063811 3.000000
-90.241798 22.309000 -205.979996 0.617939 0.786002 -0.018769 3.000000
-54.176899 45.693100 -470.851013 -0.308090 0.174796 0.935162 4.000000
-99.950500 0.048900 -201.253998 -0.207068 -0.972792 0.103921 4.000000
-73.163399 19.113199 -384.458008 0.734623 0.663756 0.140560 3.000000
-87.224098 19.039200 -279.842010 0.813953 0.577648 0.061666 3.000000
-94.274902 36.210800 -504.169006 0.041468 0.039654 -0.998353 4.000000
-117.540001 20.108900 -164.753006 -0.988167 0.006465 -0.153245 4.000000
-79.385201 3.110200 -300.420990 0.923235 -0.375224 0.082723 3.000000
-83.796303 -3.469700 -335.062012 0.330555 -0.943643 0.016447 3.000000
-103.546997 35.338299 -153.466003 -0.044135 0.957807 -0.284002 4.000000
-126.417000 17.118500 -106.279999 -0.918298 0.106621 0.381262 4.000000
-97.649101 32.774101 -163.123993 0.117608 0.961716 -0.247530 4.000000
-102.007004 32.551399 -502.656006 -0.537003 -0.153565 -0.829485 4.000000
-56.863400 31.829000 -455.346008 0.065600 0.853180 0.517474 4.000000
-80.640900 0.641900 -302.186005 0.801901 -0.593431 0.069251 3.000000
-110.498001 7.220300 -249.404999 -0.954992 -0.293144 -0.045352 3.000000
-95.789597 11.861100 -102.241997 -0.375625 0.374618 0.847683 4.000000
-116.724998 5.319300 -124.349998 -0.151026 -0.966471 -0.207668 4.000000
-72.942596 4.883400 -124.668999 0.670962 -0.228697 -0.705342 4.000000
-65.271202 12.994700 -82.012703 0.302810 0.394125 0.867739 1.000000
-90.225403 -4.598400 -319.312988 -0.015260 -0.999854 -0.007631 3.000000
-99.159698 3.635200 -358.631989 -0.888708 -0.447110 -0.101441 3.000000
-109.054001 23.292999 -214.873993 -0.604031 0.781696 -0.155234 3.000000
-77.336403 25.317301 -403.484009 0.456855 0.882443 0.112152 4.000000
-52.401299 -7.921700 -102.127998 0.868350 -0.495704 0.015685 4.000000
-65.902603 26.267500 -105.553001 0.306060 0.944432 -0.119895 4.000000
-75.874298 19.590599 -371.501007 0.785296 0.611258 0.098362 3.000000
-115.834999 39.210899 -118.619003 -0.388807 0.920386 0.041462 4.000000
-86.722504 1.980300 -460.113007 -0.013322 -0.999819 0.013543 4.000000
-45.287601 11.911600 -489.394012 0.750924 -0.634628 -0.182651 4.000000
-92.995697 -4.447900 -311.760986 -0.149191 -0.988062 -0.038403 3.000000
-87.658203 17.737000 -215.529007 0.844353 0.535055 -0.027997 3.000000
-56.251099 12.256700 -87.684303 0.674916 0.334375 0.657785 1.000000
-86.316498 11.002000 -187.169006 0.947416 -0.315714 0.052224 4.000000
-58.841801 22.552000 -440.565002 0.797936 0.380109 0.467777 4.000000
-103.841003 5.391600 -150.927002 -0.212052 -0.977099 -0.017668 4.000000
-87.277603 15.259100 -88.524696 -0.606972 0.553995 0.569802 4.000000
-68.813499 25.972300 -107.903999 0.012672 0.883256 -0.468720 4.000000
-81.147499 -5.281400 -82.686501 -0.424233 -0.366122 0.828240 1.000000
-74.344498 1.696800 -448.105011 0.028383 -0.994077 -0.104910 4.000000
-61.463501 43.731098 -479.562012 -0.727473 0.685141 -0.036940 4.000000
-100.219002 4.938200 -354.174988 -0.938255 -0.332173 -0.096639 3.000000
-59.089699 -6.371700 -117.502998 0.454251 -0.468351 -0.757828 4.000000
-47.178600 57.942001 -485.760986 0.068712 0.996312 0.051395 4.000000
-92.130501 26.038300 -185.910995 0.561032 0.810330 -0.169142 4.000000
-50.805099 -3.115500 -107.237999 0.938201 -0.280896 -0.202181 4.000000
-110.467003 5.724000 -135.106003 -0.364440 -0.912433 -0.186143 4.000000
-87.149498 29.893400 -417.217010 0.100083 0.991042 0.088430 4.000000
-99.462997 40.518501 -503.494995 -0.153347 0.169155 -0.973587 4.000000
-87.301300 -2.581000 -384.757996 -0.171138 -0.984007 -0.049405 3.000000
-96.884003 9.179100 -416.498993 -0.966337 -0.254700 -0.036346 4.000000
-85.508499 0.122300 -83.686302 -0.588617 -0.153170 0.793769 1.000000
-82.472000 -2.498300 -320.165985 0.516676 -0.855856 0.023572 3.000000
-100.652000 34.233799 -503.494995 -0.340752 -0.074426 -0.937203 4.000000
-90.034401 5.652400 -186.710999 0.685581 -0.722275 0.091086 4.000000
-78.374001 18.832600 -137.229996 0.948570 0.275826 0.155354 4.000000
-105.636002 -2.060200 -122.523003 0.076619 -0.970626 -0.228065 4.000000
-97.986900 -0.266000 -121.539001 0.080261 -0.977010 -0.197510 4.000000
-54.609299 26.331900 -507.700012 -0.256650 -0.009062 -0.966462 4.000000
-129.233002 22.778999 -135.707001 -0.585216 -0.193421 -0.787471 4.000000
-78.310799 21.839500 -150.078995 0.541306 -0.779498 -0.315231 4.000000
-94.983398 -1.176400 -214.102005 0.342725 -0.934263 0.098447 3.000000
-55.615501 12.059700 -451.425995 0.842848 -0.481351 0.240640 4.000000
-41.971001 28.362900 -463.125000 0.585256 -0.402409 0.703948 4.000000
-94.273804 51.800701 -499.584991 0.085770 0.546995 -0.832730 4.000000
-99.035103 3.174300 -491.687988 -0.413412 -0.733094 -0.540059 4.000000
-101.905998 24.666901 -464.186005 -0.944474 -0.071692 0.320671 4.000000
-105.352997 20.892000 -485.431000 -0.973054 -0.198923 -0.116597 4.000000
-85.547997 9.474300 -208.839005 0.977877 -0.201051 0.057756 3.000000
-99.444298 1.214700 -189.460999 -0.118417 -0.986269 0.115112 4.000000
-103.723000 41.092499 -122.040001 0.380719 0.897104 0.224183 4.000000
-102.255997 -1.535700 -235.136993 -0.491190 -0.870598 0.028131 3.000000
-96.550797 24.209200 -251.028000 0.100931 0.990344 -0.095035 3.000000
-84.780701 6.867900 -145.052002 0.811119 -0.573099 -0.116804 4.000000
-32.080101 29.397301 -480.050995 0.997962 0.060767 0.019470 4.000000
-66.279701 -17.925301 -106.174004 0.204973 -0.960075 -0.190376 4.000000
-85.571800 12.965800 -209.776001 0.976830 0.213358 0.016762 3.000000
-103.169998 13.106500 -103.751999 -0.034675 0.145137 0.988804 4.000000
-81.505501 55.002300 -480.096985 0.756917 0.645678 0.100881 4.000000
-92.649002 -0.194500 -486.665985 0.085553 -0.954248 -0.286517 4.000000
-116.948997 23.099300 -166.244995 -0.965100 0.210788 -0.155402 4.000000
-75.756203 22.700600 -391.772003 0.566282 0.814740 0.124593 3.000000
-123.750999 33.842098 -111.889000 -0.721622 0.643024 0.256479 4.000000
-52.735901 13.691400 -457.194000 0.819205 -0.462820 0.338675 4.000000
-96.113297 25.731701 -218.910004 0.640371 0.767540 -0.028430 3.000000
-82.192001 -2.816600 -335.311005 0.425033 -0.904478 0.035576 3.000000
-79.472397 18.929701 -345.947998 0.871212 0.468788 0.145699 3.000000
-90.905197 28.698299 -173.619003 0.335464 0.879345 -0.337958 4.000000
-45.313499 23.911800 -507.345001 0.272302 -0.241075 -0.931523 4.000000
-64.793900 11.570400 -410.442993 0.984130 0.049086 0.170522 4.000000
-87.078903 -4.198700 -301.858002 0.316899 -0.948458 0.001310 3.000000
-53.436001 -0.161300 -94.184097 0.924184 -0.373664 0.079122 1.000000
-105.292000 25.733900 -472.765015 -0.917601 -0.165783 0.361283 4.000000
-32.722500 41.440701 -481.653015 0.948389 0.311560 -0.059069 4.000000
-99.500000 7.595100 -470.526001 -0.881033 -0.344918 0.323746 4.000000
-80.498100 5.231100 -281.875000 0.981759 -0.168371 0.088321 3.000000
-105.529999 1.620200 -215.253006 -0.588529 -0.807396 0.041772 3.000000
-113.776001 18.447701 -210.197006 -0.937401 0.334681 -0.096268 3.000000
-59.034100 -10.392100 -90.988701 0.521727 -0.595434 0.610949 1.000000
-88.162003 3.109800 -142.582993 0.499526 -0.861480 -0.091240 4.000000
-96.768204 18.271200 -419.390015 -0.969800 0.243817 0.006456 4.000000
-82.918999 32.971901 -141.257996 0.331344 0.663087 0.671213 4.000000
-79.472801 6.668500 -293.355988 0.996369 0.012693 0.084185 3.000000
-48.867298 51.892200 -500.141998 -0.033090 0.683645 -0.729064 4.000000
-84.309303 52.287998 -471.187012 0.444512 0.641133 0.625586 4.000000
-95.592499 47.478901 -467.204987 -0.151806 0.413321 0.897842 4.000000
-53.677799 40.324902 -505.841003 -0.175661 0.278159 -0.944336 4.000000
-34.930099 49.705101 -478.757996 0.941879 -0.148124 0.301535 4.000000
-99.241898 32.889500 -503.812012 -0.244598 -0.088536 -0.965574 4.000000
-105.098999 8.862700 -310.516998 -0.970439 0.225755 -0.085338 3.000000
-75.949097 14.816700 -350.968994 0.836813 0.534145 0.120134 3.000000
-75.770897 26.885300 -156.934998 0.789345 -0.465708 -0.400064 4.000000
-96.035004 25.166500 -438.647003 -0.962232 0.245174 0.118320 4.000000
-41.533501 51.508400 -499.536011 0.203067 0.699490 -0.685184 4.000000
-96.008499 -1.599500 -215.414993 0.178610 -0.979860 0.089296 3.000000
-74.190102 43.014999 -479.863007 0.625888 0.743705 -0.234875 4.000000
-122.320999 35.004299 -119.121002 -0.730006 0.683291 0.014288 4.000000
-112.753998 18.628099 -218.059998 -0.890545 0.439345 -0.117920 3.000000
-108.813004 3.980200 -242.667007 -0.791116 -0.611626 0.006943 3.000000
-79.078903 25.424400 -397.601013 0.440175 0.891127 0.110176 3.000000
-55.233501 10.352500 -116.549004 0.748260 0.410416 -0.521215 4.000000
-112.271004 40.898602 -127.365997 -0.356179 0.928044 -0.108952 4.000000
-56.686798 11.619000 -448.217010 0.864842 -0.458092 0.205427 4.000000
-95.994698 16.257000 -502.730011 -0.211768 -0.310939 -0.926537 4.000000
-108.763000 11.649600 -265.187012 -0.922318 0.377739 -0.081506 3.000000
-100.910004 0.664100 -196.662994 -0.312678 -0.944952 0.096426 4.000000
-101.344002 -2.647900 -274.139008 -0.513918 -0.857562 -0.021798 3.000000
-109.330002 5.699700 -263.337006 -0.960248 -0.273728 -0.054743 3.000000
-57.793900 15.387900 -504.843994 -0.197299 -0.301745 -0.932750 4.000000
-60.690201 21.908001 -92.114304 0.500633 0.751159 0.430264 1.000000
-35.496799 41.791698 -500.960999 0.958305 -0.080297 -0.274235 4.000000
-81.876602 -2.754400 -337.722992 0.442826 -0.896203 0.026918 3.000000
-103.630997 31.079100 -106.120003 0.943372 -0.295170 -0.151405 4.000000
-85.140099 23.408199 -332.270996 0.312640 0.949759 0.014633 3.000000
-66.770798 9.885700 -398.934998 0.987873 0.018120 0.154201 4.000000
-100.374001 -3.243700 -273.071991 -0.476737 -0.878804 -0.020619 3.000000
-104.556999 -0.593400 -254.727997 -0.610618 -0.791738 0.017239 3.000000
-60.739601 38.626400 -501.191986 -0.828338 0.545008 -0.129701 4.000000
-93.776398 -1.042600 -481.260986 0.012254 -0.999335 0.034347 4.000000
-49.310902 18.411501 -459.489990 0.812208 -0.327044 0.483074 4.000000
-70.978500 10.772100 -372.908997 0.974164 0.179493 0.137063 3.000000
-91.114799 22.733101 -248.949997 0.325693 0.945418 0.010461 3.000000
-105.031998 18.671700 -482.292999 -0.956570 -0.290477 -0.024431 4.000000
-44.963001 26.595699 -507.819000 0.234287 -0.129967 -0.963441 4.000000
-95.557999 -3.458400 -100.838997 -0.841310 -0.457382 0.288096 4.000000
-100.643997 10.916400 -357.134003 -0.992812 0.088198 -0.080907 3.000000
-111.108002 9.226800 -246.125000 -0.987007 -0.140632 -0.077715 3.000000
-81.147598 5.744700 -274.230988 0.987058 -0.124279 0.101346 3.000000
-117.689003 29.750099 -150.509995 -0.760928 0.591759 -0.266101 4.000000
-87.736603 -4.335400 -331.540985 0.087412 -0.996078 -0.013677 3.000000
-98.300301 9.224900 -498.235992 -0.341802 -0.562052 -0.753173 4.000000
-102.891998 10.944100 -480.373993 -0.969377 -0.208931 0.129059 4.000000
-88.331902 26.052299 -503.139008 0.244081 -0.007079 -0.969729 4.000000
-107.158997 8.212500 -290.294006 -0.987362 0.114094 -0.109998 3.000000
-55.772999 -10.255500 -94.733398 0.714453 -0.602376 0.355950 4.000000
-54.055599 30.634501 -507.627991 -0.265925 0.107081 -0.958028 4.000000
-64.237099 41.057201 -473.308014 -0.240667 0.858571 0.452699 4.000000
-99.111397 3.123000 -173.337997 -0.093259 -0.988059 0.122644 4.000000
-103.073997 24.556801 -229.274994 -0.484618 0.861601 -0.150962 3.000000
-113.650002 11.896900 -187.477005 -0.884730 -0.466101 -0.001396 4.000000
-100.235001 52.201302 -472.523987 -0.667909 0.546127 0.505611 4.000000
-94.715797 38.405800 -458.558014 -0.392846 0.799127 0.455046 4.000000
-103.023003 4.497900 -145.162003 -0.458902 -0.869108 -0.184554 4.000000
-85.064499 23.013300 -166.240005 0.955744 -0.151943 -0.251927 4.000000
-96.179199 20.917000 -427.157990 -0.955250 0.290200 0.057285 4.000000
-63.006500 3.561300 -462.604004 0.256739 -0.960507 0.107292 4.000000
-76.204300 21.848101 -383.450012 0.617390 0.775500 0.132016 3.000000
-112.333000 29.598700 -169.908997 -0.702895 0.688665 -0.177985 4.000000
-102.893997 5.237200 -157.315994 -0.191881 -0.980971 0.029609 4.000000
-88.041901 21.775101 -503.036987 0.262282 -0.058941 -0.963190 4.000000
-84.319000 21.545401 -102.425003 -0.679502 0.681435 0.271886 4.000000
-43.002300 56.445599 -480.265991 0.159847 0.921037 0.355162 4.000000
-84.994698 11.355300 -163.584000 0.953053 -0.256935 -0.160230 4.000000
-76.854202 24.803600 -401.473999 0.478245 0.869967 0.120160 4.000000
-97.468903 14.465300 -432.477997 -0.999685 -0.001615 0.025024 4.000000
-81.134102 49.602600 -471.839996 0.700839 0.345083 0.624294 4.000000
-85.179604 0.321600 -437.186005 -0.122832 -0.989094 -0.081276 4.000000
-90.795303 -1.761300 -238.766006 0.511099 -0.853823 0.098808 3.000000
-90.597702 1.262900 -423.212006 -0.481280 -0.874540 -0.059585 4.000000
-38.639801 24.327000 -497.230011 0.862449 -0.379603 -0.334787 4.000000
-124.188004 33.809601 -113.197998 -0.719545 0.683078 0.125137 4.000000
-81.432602 31.819799 -140.768997 0.286428 0.614039 0.735469 4.000000
-59.256199 1.908700 -479.631989 0.177909 -0.983147 -0.042065 4.000000
-39.391800 51.584599 -498.673004 0.325959 0.691274 -0.644896 4.000000
-111.138000 6.612800 -140.653000 -0.246810 -0.967499 -0.055044 4.000000
-102.586998 1.035900 -199.804001 -0.434773 -0.895344 0.096603 4.000000
-102.024002 3.253400 -142.781006 -0.446350 -0.857102 -0.257190 4.000000
-124.775002 11.075600 -113.760002 -0.688528 -0.717096 0.108178 4.000000
-128.434998 20.576200 -135.630005 -0.608700 -0.150414 -0.779012 4.000000
-114.333000 16.367800 -208.358994 -0.998274 0.015106 -0.056753 3.000000
-108.910004 9.493500 -270.308014 -0.977624 0.185321 -0.099535 3.000000
-56.898602 -12.018100 -96.138000 0.639946 -0.697906 0.321552 4.000000
-71.318001 -5.230100 -120.007004 0.055938 -0.244017 -0.968156 4.000000
-103.096001 5.001700 -147.447006 -0.353103 -0.925762 -0.135216 4.000000
-98.357803 7.714900 -467.226990 -0.863161 -0.413328 0.290022 4.000000
-86.576897 1.026600 -471.984985 0.238807 -0.965243 0.106191 4.000000
-62.949100 15.222800 -421.467987 0.951600 0.207016 0.227162 4.000000
-82.210297 -16.560600 -103.956001 -0.445148 -0.887523 -0.118941 1.000000
-97.527802 59.661301 -483.050995 -0.116624 0.964914 0.235245 4.000000
-71.420601 0.701300 -429.957001 0.245538 -0.969306 0.012551 4.000000
-93.563499 36.145699 -153.145996 -0.057785 0.949387 -0.308749 4.000000
-105.149002 -0.149300 -259.033997 -0.627895 -0.778267 -0.007033 3.000000
-105.108002 46.264400 -487.804993 -0.797759 0.518917 -0.307092 4.000000
-115.373001 17.066401 -185.755997 -0.990660 -0.124235 -0.056191 4.000000
-98.895302 19.233200 -451.951996 -0.990422 -0.006019 0.137942 4.000000
-79.928703 30.543900 -500.144989 0.327354 0.118016 -0.937503 4.000000
-91.608597 -5.063200 -276.363007 0.140493 -0.989857 0.021071 3.000000
-101.260002 -1.370500 -301.575989 -0.610119 -0.790363 -0.055497 3.000000
-71.981796 7.279400 -493.562988 -0.371435 -0.653687 -0.659340 4.000000
-120.472000 35.740601 -106.386002 -0.630571 0.654006 0.417920 4.000000
-98.906197 15.834900 -361.075012 -0.900599 0.433876 -0.025928 3.000000
-92.604698 -8.067700 -105.841003 -0.710273 -0.696459 -0.102259 4.000000
-109.323997 4.694600 -231.427994 -0.797511 -0.603270 0.006455 3.000000
-112.279999 30.901300 -97.564796 -0.350075 0.483329 0.802397 4.000000
-64.990097 -17.467699 -96.919403 0.338416 -0.908931 0.243554 1.000000
-99.483803 4.358000 -161.675995 -0.217607 -0.975247 0.039246 4.000000
-94.704803 27.774300 -430.247009 -0.961586 0.252792 0.106995 4.000000
-59.104198 22.079800 -94.755798 0.580649 0.754263 0.306485 1.000000
-89.985497 4.414200 -195.822006 0.681293 -0.724922 0.101629 4.000000
-116.415001 31.188601 -100.228996 -0.430220 0.497171 0.753480 4.000000
-64.990097 -17.467699 -96.919403 0.338416 -0.908931 0.243554 1.000000
-80.015198 29.375000 -429.358002 0.300769 0.947468 0.108821 4.000000
-80.906898 -1.747600 -327.054993 0.571809 -0.819102 0.045902 3.000000
-86.643600 13.589800 -500.381012 0.306460 -0.397985 -0.864691 4.000000
-110.418999 38.115898 -484.746002 -0.986190 0.053809 -0.156631 4.000000
-111.461998 5.821700 -106.158997 -0.030603 -0.430250 0.902191 4.000000
-90.503304 23.969000 -314.776001 -0.262502 0.964916 0.005383 3.000000
-78.055298 24.736601 -500.049011 0.153821 -0.034698 -0.987489 4.000000
-77.309303 -1.501700 -388.285004 0.330760 -0.943691 -0.006666 3.000000
-43.398499 55.941200 -478.968994 0.150418 0.890228 0.429963 4.000000
-37.874802 31.121901 -501.875000 0.961271 -0.241241 -0.133271 4.000000
-98.723099 18.438499 -300.895996 -0.610818 0.790091 -0.051545 3.000000
-131.227005 14.430500 -126.288002 -0.858456 -0.509828 0.055934 4.000000
-122.316002 8.669200 -113.329002 -0.709498 -0.628914 0.317929 4.000000
-51.606400 11.402300 -94.390099 0.915963 0.262856 0.303182 1.000000
-99.291496 15.331900 -357.382996 -0.895258 0.443397 -0.043736 3.000000
-91.639000 -2.981900 -244.358994 0.468980 -0.877962 0.096128 3.000000
-112.323997 14.594400 -230.606003 -0.971363 0.207719 -0.115356 3.000000
-81.443802 -8.863100 -85.021698 -0.413516 -0.543547 0.730453 1.000000
-99.587898 4.407500 -158.087006 -0.318621 -0.947660 -0.020520 4.000000
-89.558296 1.107000 -429.088989 -0.410493 -0.910317 -0.053086 4.000000
-100.503998 26.711500 -223.070999 -0.219308 0.975026 -0.035034 3.000000
-106.522003 1.226200 -263.524994 -0.735560 -0.677101 -0.022069 3.000000
-94.470100 21.934401 -298.497009 -0.710977 0.702558 -0.030381 3.000000
-83.618401 10.056500 -152.018005 0.878712 -0.473936 -0.057016 4.000000
-81.444504 20.504700 -337.467987 0.875581 0.482542 0.022630 3.000000
-91.671204 -4.507100 -316.079010 -0.074457 -0.997179 -0.009458 3.000000
-55.184700 31.877800 -507.127991 -0.289299 0.120902 -0.949573 4.000000
-77.386200 24.553900 -397.644012 0.477165 0.870728 0.118941 3.000000
-71.941803 1.009200 -397.382996 0.538420 -0.842291 0.025507 3.000000
-49.660801 16.778000 -460.080994 0.792312 -0.386842 0.471800 4.000000
-75.271698 6.066600 -337.786011 0.991042 -0.073514 0.111494 3.000000
-74.550201 -0.752800 -79.583099 -0.137828 -0.173008 0.975229 1.000000
-41.253700 19.558701 -496.138000 0.780882 -0.575848 -0.242122 4.000000
-98.943199 19.670000 -502.546997 -0.425451 -0.158684 -0.890961 4.000000
-89.150200 14.635400 -95.349197 -0.815938 0.517515 -0.257728 4.000000
-102.007004 32.551399 -502.656006 -0.537003 -0.153565 -0.829485 4.000000
-68.987198 11.225600 -385.949005 0.969581 0.188605 0.156013 3.000000
-77.870003 36.124298 -463.402008 0.306757 0.860500 0.406744 4.000000
-84.360802 25.983500 -376.079987 0.358229 0.931192 0.067476 3.000000
-101.213997 8.906400 -495.641998 -0.822641 -0.409848 -0.394064 4.000000
-86.498802 -3.571400 -287.953003 0.496463 -0.866542 0.051273 3.000000
-83.621399 18.691799 -157.244995 0.951108 -0.212413 -0.224221 4.000000
-75.151604 5.439700 -339.160004 0.983688 -0.152691 0.095097 3.000000
-89.958397 24.603701 -183.735001 0.757778 0.629428 -0.172027 4.000000
-104.031998 19.585199 -492.612000 -0.983114 -0.153945 -0.098933 4.000000
-83.048798 38.792099 -500.075989 0.493417 0.160070 -0.854937 4.000000
-103.405998 29.886700 -102.564003 0.991398 -0.129137 0.021302 4.000000
-93.531097 29.742001 -172.654007 0.223432 0.942602 -0.248154 4.000000
-83.867897 2.733400 -256.393005 0.864486 -0.492340 0.101316 3.000000
-94.633400 4.081400 -94.550697 -0.965970 0.058282 0.252003 4.000000
-103.364998 31.966200 -180.882004 0.172832 0.973764 -0.148027 4.000000
-88.916901 -4.400700 -279.259003 0.359533 -0.932885 0.021504 3.000000
-109.487999 5.111500 -219.141006 -0.759062 -0.650728 0.019427 3.000000
-111.544998 8.191200 -226.229996 -0.898409 -0.438854 -0.016400 3.000000
-94.902199 47.744400 -501.769989 0.011787 0.392869 -0.919519 4.000000
-104.075996 30.653500 -111.195999 0.758666 -0.525989 0.384399 4.000000
-33.541599 50.482700 -485.408997 0.985480 -0.169708 0.005222 4.000000
-81.894096 10.242600 -271.261993 0.952303 0.296969 0.070210 3.000000
-85.868202 12.741500 -193.156006 0.998685 -0.046479 0.021631 4.000000
-93.196198 26.316700 -411.552002 -0.801217 0.592062 0.086680 4.000000
-75.329697 13.954500 -497.552002 -0.179563 -0.490030 -0.853011 4.000000
-75.839798 -0.903000 -384.904999 0.416550 -0.909112 0.000916 3.000000
-90.865799 -0.333800 -226.259995 0.555517 -0.824508 0.107640 3.000000
-125.807999 16.743099 -138.988998 -0.857235 0.029960 -0.514053 4.000000
-104.879997 0.336500 -280.187012 -0.701387 -0.711438 -0.043725 3.000000
-100.501999 34.806400 -155.589005 -0.044248 0.958852 -0.280437 4.000000
-31.672899 36.793598 -475.703003 0.937332 -0.050280 0.344792 4.000000
-91.553703 22.964300 -242.348007 0.538937 0.840987 0.047830 3.000000
-68.393402 2.419400 -417.052002 0.591928 -0.804196 0.053767 4.000000
-83.629700 6.938200 -494.164001 0.368901 -0.638409 -0.675534 4.000000
-89.822998 16.852301 -502.601013 0.233260 -0.279915 -0.931256 4.000000
-92.417801 33.692001 -159.688995 -0.069945 0.919616 -0.386541 3.000000
-102.356003 14.366200 -309.079010 -0.762306 0.645241 -0.050528 3.000000
-122.931000 16.618000 -144.240997 -0.898331 -0.080866 -0.431813 4.000000
-38.251499 23.987400 -495.893005 0.843839 -0.415779 -0.339210 4.000000
-81.655899 27.283800 -403.852997 0.354999 0.929582 0.099265 4.000000
-86.107300 29.914900 -166.690994 0.346492 0.749003 -0.564746 4.000000
-87.829498 -12.307600 -106.905998 -0.614243 -0.739522 -0.275341 4.000000
-74.201202 0.293900 -432.364990 0.091797 -0.995293 -0.031066 4.000000
-71.819901 26.181801 -425.397003 0.373537 0.913911 0.158862 4.000000
-80.190102 8.481900 -286.519989 0.986867 0.142877 0.075362 3.000000
-103.170998 21.723400 -497.691010 -0.959534 -0.025842 -0.280405 4.000000
-106.149002 22.631701 -480.154999 -0.964886 -0.257516 0.051780 4.000000
-83.629501 -3.443400 -352.592987 0.220384 -0.975347 0.011345 3.000000
-117.471001 14.026600 -158.738998 -0.912640 -0.353842 -0.204656 4.000000
-67.332603 2.889100 -464.022003 0.008376 -0.999240 0.038060 4.000000
-85.540001 35.206799 -452.182007 0.326434 0.890541 0.316823 4.000000
-69.699402 -6.218400 -80.931297 0.102641 -0.393211 0.913701 1.000000
-111.942001 9.028100 -203.300995 -0.832819 -0.553375 0.013753 3.000000
-86.038002 14.692900 -211.908997 0.938722 0.344420 0.013266 3.000000
-98.069603 -2.315500 -114.982002 -0.278656 -0.922832 -0.265957 4.000000
-93.465500 21.722300 -314.833008 -0.660733 0.746912 -0.074527 3.000000
-122.359001 25.540701 -101.698997 -0.751628 0.181168 0.634218 4.000000
-64.532204 16.028799 -114.732002 0.255731 0.437931 -0.861869 4.000000
-95.469101 20.458200 -357.871002 -0.671840 0.740355 0.022473 3.000000
-94.341301 2.771200 -159.085007 -0.113137 -0.989609 -0.088733 4.000000
-102.209999 10.049800 -339.023010 -0.981302 0.173156 -0.084039 3.000000
-108.115997 41.368198 -117.514999 0.054414 0.992857 0.106180 4.000000
-57.554401 13.112300 -86.854897 0.627373 0.357286 0.691917 1.000000
-122.251999 28.230200 -102.625999 -0.773550 0.278749 0.569138 4.000000
-121.913002 19.088400 -147.018005 -0.933896 -0.026247 -0.356580 4.000000
-97.905502 14.759800 -398.654999 -0.991217 0.126596 -0.038234 3.000000
-49.206902 6.308800 -101.911003 0.984269 0.173913 -0.031110 1.000000
-124.163002 29.026400 -107.128998 -0.844556 0.348522 0.406520 4.000000
-110.127998 38.659000 -486.166992 -0.978227 0.080015 -0.191492 4.000000
-97.624603 26.382000 -227.643005 0.380898 0.921651 -0.074004 3.000000
-53.605499 15.100400 -93.348900 0.801529 0.462134 0.379450 1.000000
-97.221298 -4.581800 -267.240997 -0.270718 -0.962626 -0.007980 3.000000
-97.802399 18.460899 -502.785004 -0.329394 -0.207188 -0.921180 4.000000
-77.715202 21.271601 -115.091003 0.248600 0.920869 -0.300331 4.000000
-82.739700 47.701900 -469.812988 0.589575 0.098517 0.801683 4.000000
-126.417000 17.118500 -106.279999 -0.918298 0.106621 0.381262 4.000000
-89.441498 25.189400 -369.196014 -0.484562 0.873406 0.048602 3.000000
-106.878998 16.948099 -254.404007 -0.731133 0.665822 -0.148747 3.000000
-101.569000 8.881200 -348.075012 -0.994149 0.025297 -0.105013 3.000000
-112.592003 14.559800 -228.225006 -0.976611 0.188916 -0.102677 3.000000
-101.691002 39.547901 -140.274002 0.094084 0.980415 -0.173017 4.000000
-39.744999 45.053200 -503.618988 0.341081 0.414774 -0.843579 4.000000
-101.694000 6.894700 -345.272003 -0.981376 -0.168628 -0.092005 3.000000
-84.379097 9.139500 -228.376007 0.997891 -0.008847 0.064302 3.000000
-66.976303 40.860001 -474.592987 -0.116179 0.956451 0.267775 4.000000
-51.011501 -5.224100 -102.991997 0.902625 -0.427325 -0.051600 4.000000
-107.502998 2.181700 -251.445999 -0.756989 -0.653418 0.003515 3.000000
-50.108002 44.000099 -469.653015 -0.066182 0.269585 0.960700 4.000000
-82.715599 11.319400 -148.834000 0.894477 -0.435282 -0.102182 4.000000
-86.617203 16.018600 -211.214996 0.906560 0.422057 0.004179 3.000000
-101.769997 4.421400 -165.962997 -0.198271 -0.976309 0.086661 4.000000
-82.825798 22.357100 -158.718002 0.850959 -0.404845 -0.334617 4.000000
-97.634598 11.280400 -408.558014 -0.994976 -0.091403 -0.040839 4.000000
-87.246399 -3.824000 -350.692993 -0.024461 -0.999617 -0.012950 3.000000
-96.252899 1.071300 -134.358994 0.005325 -0.997796 0.066140 4.000000
-74.880699 31.184799 -148.401993 0.918373 0.345785 0.192417 4.000000
-59.832802 -12.489000 -92.967300 0.502346 -0.712873 0.489346 1.000000
-70.327797 9.291400 -496.583008 -0.492772 -0.578873 -0.649678 4.000000
-106.679001 40.692699 -113.061996 0.315871 0.944396 0.091335 4.000000
-45.918499 10.276800 -483.721008 0.736741 -0.676150 -0.005873 4.000000
-123.499001 13.779900 -103.111000 -0.479988 -0.459966 0.747023 4.000000
-97.236099 17.337000 -405.208008 -0.970260 0.241520 -0.016253 4.000000
-77.261398 45.864498 -481.354004 0.789393 0.557782 -0.256393 4.000000
-60.499298 -11.593500 -114.209999 0.439770 -0.681676 -0.584740 1.000000
-95.056801 20.698900 -311.300995 -0.633091 0.773005 -0.040734 3.000000
-82.182503 -1.582700 -409.822998 0.014280 -0.997598 -0.067782 4.000000
-71.296402 2.631000 -457.264008 0.005966 -0.996600 -0.082171 4.000000
-73.174202 42.175900 -475.545990 0.433754 0.840667 0.324249 4.000000
-85.305901 9.456200 -212.688995 0.989042 -0.133894 0.062194 3.000000
-80.113701 18.976700 -342.781006 0.844362 0.516310 0.143098 3.000000
-86.466301 18.304600 -184.376999 0.952391 0.288662 -0.098112 4.000000
-110.002998 26.375900 -96.145203 0.231666 -0.056139 0.971174 4.000000
-100.277000 13.630200 -352.928986 -0.919729 0.388982 -0.052836 3.000000
-103.464996 48.033199 -500.108002 -0.390191 0.451921 -0.802196 4.000000
-97.362801 13.187200 -500.997986 -0.314269 -0.410828 -0.855836 4.000000
-96.808197 19.130301 -378.018005 -0.855407 0.517921 0.006053 3.000000
-106.372002 3.407800 -198.699005 -0.584894 -0.808965 0.058938 4.000000
-64.652397 2.115600 -492.325012 -0.423262 -0.828829 -0.365912 4.000000
-82.604500 28.111799 -408.971985 0.308383 0.946871 0.091298 4.000000
-55.107201 49.416401 -500.282013 -0.510127 0.572785 -0.641629 4.000000
-84.642601 24.409401 -354.437012 0.320562 0.944121 0.076652 3.000000
-106.452003 32.077999 -492.114014 -0.900584 -0.222800 -0.373240 4.000000
-37.382801 27.304100 -497.203003 0.844919 -0.302703 -0.441002 4.000000
-98.783302 -3.284700 -293.812988 -0.443938 -0.895272 -0.037525 3.000000
-98.903000 -2.439700 -310.192993 -0.517852 -0.853638 -0.055958 3.000000
-95.301300 30.002199 -121.419998 0.784584 0.382504 0.487974 4.000000
-88.175102 32.303902 -503.121002 0.324578 0.045931 -0.944743 4.000000
-109.752998 41.824001 -127.194000 -0.321750 0.940186 -0.111923 4.000000
-101.459999 17.784500 -281.075012 -0.597020 0.800388 -0.054278 3.000000
-97.799202 25.534800 -449.553986 -0.966548 0.156536 0.203178 4.000000
-124.188004 33.809601 -113.197998 -0.719545 0.683078 0.125137 4.000000
-97.484497 -2.393100 -326.114014 -0.493986 -0.867636 -0.056443 3.000000
-104.132004 12.689800 -303.281006 -0.831659 0.547556 -0.092337 3.000000
-87.021896 2.896400 -227.162994 0.753651 -0.647384 0.113593 3.000000
-88.501198 5.300400 -162.001999 0.704108 -0.706360 -0.072718 4.000000
-110.759003 21.168900 -218.541000 -0.703093 0.698109 -0.135291 3.000000
-100.346001 4.133600 -491.601013 -0.697085 -0.573764 -0.429962 4.000000
-75.176300 -0.492300 -123.249001 0.362078 -0.520036 -0.773603 4.000000
-75.891998 1.238300 -350.096008 0.797225 -0.599201 0.073419 3.000000
-96.227402 38.239700 -142.826996 0.148435 0.979369 -0.137128 4.000000
-86.562798 31.265600 -502.605011 0.335880 0.040811 -0.941020 4.000000
-91.307297 23.379999 -268.790009 0.369569 0.928891 0.024107 3.000000
-110.348000 6.488100 -141.944000 -0.231081 -0.971921 -0.044388 4.000000
-46.518200 57.792900 -484.381012 0.074348 0.990602 0.114802 4.000000
-62.699100 12.458300 -421.378998 0.978656 -0.004184 0.205464 4.000000
-66.995796 2.372900 -443.307007 0.390069 -0.920434 -0.025422 4.000000
-85.101196 29.791700 -420.054993 0.194695 0.977610 0.079830 4.000000
-99.279602 -2.352800 -307.808990 -0.503397 -0.862585 -0.050389 3.000000
-61.718700 3.019000 -467.975006 0.216554 -0.951215 0.219762 4.000000
-98.357803 7.714900 -467.226990 -0.863161 -0.413328 0.290022 4.000000
-83.028900 2.818900 -263.636993 0.891434 -0.443875 0.091212 3.000000
-84.310204 3.404500 -247.654999 0.859142 -0.504747 0.084295 3.000000
-71.062103 33.333401 -492.515991 0.111540 0.922655 -0.369143 4.000000
-82.375900 6.946000 -258.552002 0.992723 -0.099834 0.067338 3.000000
-92.647400 59.043499 -490.890991 0.138930 0.909922 -0.390819 4.000000
-113.478996 13.484700 -219.419998 -0.995277 -0.078944 -0.056491 3.000000
-97.872498 17.671000 -355.075989 -0.804422 0.594056 -0.001504 3.000000
-90.601097 58.456001 -491.372986 0.203748 0.878396 -0.432327 4.000000
-85.947998 14.931200 -223.098007 0.893552 0.448264 0.024971 3.000000
-96.445396 32.455101 -163.675995 0.136449 0.950915 -0.277745 3.000000
-63.965801 0.780100 -487.204010 -0.159248 -0.987120 0.015338 4.000000
-37.657700 51.601501 -475.528992 0.475937 0.606882 0.636536 4.000000
-71.892700 -17.983299 -94.035500 0.017164 -0.948873 0.315190 1.000000
-96.477600 26.978901 -197.860001 0.643407 0.764012 -0.048100 4.000000
-38.663799 18.823500 -474.003998 0.710140 -0.644550 0.283294 4.000000
-77.284698 18.904600 -122.050003 0.529783 0.816879 -0.228119 4.000000
-78.681396 3.284100 -308.459015 0.944292 -0.320517 0.074712 3.000000
-103.761002 49.149799 -499.118988 -0.454285 0.503228 -0.735110 4.000000
-96.785301 56.167500 -495.940002 -0.004148 0.739542 -0.673097 4.000000
-103.405998 29.886700 -102.564003 0.991398 -0.129137 0.021302 4.000000
-42.098301 57.355801 -487.871002 0.181375 0.980269 -0.078583 4.000000
-51.036598 13.013700 -102.527000 0.926907 0.366428 -0.081078 1.000000
-93.760597 1.604800 -396.828003 -0.679946 -0.729865 -0.070498 3.000000
-73.454803 0.167600 -394.255005 0.486584 -0.873303 0.024034 3.000000
-84.583298 21.008301 -95.527901 -0.692541 0.718356 -0.065960 4.000000
-83.541100 13.715500 -271.609009 0.828406 0.558147 0.047074 3.000000
-121.220001 23.334999 -147.988998 -0.930914 0.183288 -0.315920 4.000000
-94.858101 0.631300 -375.997986 -0.683642 -0.726442 -0.070111 3.000000
-84.002998 23.998501 -163.705994 0.870553 -0.379104 -0.313715 4.000000
-85.450897 29.680901 -417.825012 0.190645 0.978398 0.079948 4.000000
-52.056599 5.366600 -478.200989 0.618309 -0.782489 0.073516 4.000000
-103.833000 41.605499 -132.313995 0.250476 0.957326 -0.144179 4.000000
-76.578400 1.735300 -339.576996 0.838484 -0.539159 0.079080 3.000000
-81.358101 2.159500 -475.726013 0.273068 -0.957573 0.092127 4.000000
-119.185997 38.003300 -129.824005 -0.423866 0.904919 -0.038196 4.000000
-75.700500 5.015700 -334.536011 0.980570 -0.166661 0.103475 3.000000
-77.376701 46.733898 -478.684998 0.726543 0.686718 0.023535 4.000000
-103.463997 -0.841100 -237.108994 -0.550650 -0.834349 0.025425 3.000000
-120.556999 9.855600 -104.680000 -0.528584 -0.690087 0.494347 4.000000
-77.385803 22.075100 -378.921997 0.613389 0.785168 0.085236 3.000000
-45.012699 54.492401 -496.841003 0.112581 0.820927 -0.559826 4.000000
-97.281502 14.658100 -425.217987 -0.999223 0.038971 0.005961 4.000000
-120.523003 20.011101 -151.162003 -0.959582 -0.011176 -0.281209 4.000000
-96.863297 -0.160500 -476.907013 -0.506783 -0.804497 0.309768 4.000000
-129.617004 17.101000 -116.106003 -0.960222 -0.091207 0.263920 4.000000
-101.837997 34.121700 -158.210007 0.042974 0.980045 -0.194075 4.000000
-104.271004 37.754700 -145.630005 -0.169816 0.939138 -0.298634 4.000000
-98.737000 8.384600 -381.203003 -0.982475 -0.180364 -0.047031 3.000000
-48.629002 38.256001 -466.856995 0.056913 0.594626 0.801986 4.000000
-92.986801 25.572599 -190.789993 0.575061 0.796002 -0.188909 4.000000
-74.322304 27.850300 -151.169998 0.996950 -0.063610 -0.045223 4.000000
-113.084000 10.850300 -190.498001 -0.850193 -0.526462 0.003103 4.000000
-83.389999 22.790899 -104.428001 -0.517033 0.852930 0.072022 4.000000
-84.936798 -0.933700 -418.559998 -0.130443 -0.990097 -0.051896 4.000000
-105.301003 -1.869100 -116.403000 0.270548 -0.947889 0.168257 4.000000
-105.112999 20.485800 -486.656006 -0.972052 -0.189266 -0.138899 4.000000
-87.412399 -3.599700 -358.226990 -0.069123 -0.997006 -0.034652 3.000000
-118.238998 10.417200 -147.884003 -0.651435 -0.715493 -0.252392 4.000000
-105.177002 5.678400 -155.977997 -0.162940 -0.986496 0.016606 4.000000
-78.839996 22.202400 -366.907990 0.618874 0.781098 0.082950 3.000000
-69.246597 32.526299 -495.002014 -0.124822 0.954681 -0.270194 4.000000
-79.229202 20.916700 -357.003998 0.848034 0.516219 0.119819 3.000000
-111.571999 10.065100 -241.106995 -0.992596 -0.105001 -0.061060 3.000000
-72.200104 1.273900 -386.946014 0.608573 -0.792915 0.030415 3.000000
-67.332603 2.889100 -464.022003 0.008376 -0.999240 0.038060 4.000000
-54.684898 3.941800 -473.906006 0.527579 -0.809495 0.257639 4.000000
-82.799004 23.227100 -349.324005 0.438715 0.894989 0.080770 3.000000
-59.267200 5.343400 -83.310204 0.585731 0.044545 0.809281 1.000000
-90.848701 60.002899 -484.656006 0.126294 0.991773 0.020881 4.000000
-101.987999 16.457001 -468.906006 -0.931054 -0.258785 0.257233 4.000000
-89.565201 -2.871600 -367.118011 -0.265482 -0.963211 -0.041769 3.000000
-59.735001 17.429001 -504.921997 -0.269564 -0.265953 -0.925529 4.000000
-80.542099 15.884400 -323.720001 0.798867 0.593805 0.095956 3.000000
-98.357903 39.469700 -135.867004 0.313009 0.948878 -0.040690 4.000000
-64.096497 35.922199 -466.161987 -0.170671 0.893005 0.416430 4.000000
-92.669403 2.890100 -426.218994 -0.647166 -0.760625 -0.051243 4.000000
-78.666801 10.088000 -309.544006 0.947004 0.308592 0.089188 3.000000
-77.679298 0.975100 -443.074005 0.050664 -0.992534 -0.110949 4.000000
-85.729797 -3.901300 -342.345001 0.122834 -0.991994 -0.029315 3.000000
-86.033600 -4.002000 -327.783997 0.224033 -0.974581 0.001107 3.000000
-94.731903 5.256500 -427.386993 -0.825877 -0.561668 -0.049558 4.000000
-96.442802 34.084099 -158.677002 0.015342 0.950612 -0.310004 4.000000
-107.302002 31.585699 -489.500000 -0.894440 -0.285561 -0.344139 4.000000
-77.196899 3.348400 -485.816986 0.082048 -0.945690 -0.314544 4.000000
-111.407997 24.197300 -96.100800 0.200795 -0.225147 0.953410 4.000000
-57.144798 10.573300 -86.079399 0.639368 0.270749 0.719656 1.000000
-93.785301 -0.178600 -122.351997 -0.164847 -0.919483 -0.356898 4.000000
-89.195900 -3.142800 -362.583008 -0.212619 -0.976188 -0.043010 3.000000
-117.738998 23.000000 -161.927994 -0.964003 0.185118 -0.190865 4.000000
-95.746902 21.215401 -405.445007 -0.911181 0.411985 0.004107 4.000000
-64.773499 27.179100 -442.664001 0.222568 0.945219 0.238798 4.000000
-125.907997 21.933599 -106.570999 -0.870670 0.124955 0.475730 4.000000
-72.734596 -10.662400 -118.633003 0.010168 -0.342213 -0.939568 4.000000
-116.060997 18.846100 -178.384003 -0.997938 -0.005133 -0.063976 4.000000
-94.731903 5.256500 -427.386993 -0.825877 -0.561668 -0.049558 4.000000
-95.656700 5.724500 -414.958008 -0.881143 -0.469101 -0.059419 4.000000
-97.147202 19.698400 -437.221985 -0.979403 0.188423 0.072565 4.000000
-96.839401 2.651300 -100.845001 -0.869692 0.051109 0.490942 4.000000
-113.723999 15.059200 -216.386993 -0.995950 0.018331 -0.088018 3.000000
-125.002998 10.566600 -117.149002 -0.839587 -0.511050 0.184176 4.000000
-100.175003 -1.141000 -317.033997 -0.643253 -0.763473 -0.057744 3.000000
-90.085098 2.123700 -140.789993 0.354898 -0.932996 -0.059709 4.000000
-55.417301 15.744400 -447.351013 0.925561 -0.202998 0.319577 4.000000
-103.817001 7.868900 -104.285004 -0.201238 -0.254100 0.946011 4.000000
-66.662498 2.009900 -473.886993 -0.182780 -0.983153 0.001211 4.000000
-65.743698 -11.233300 -86.511703 0.490097 -0.643177 0.588326 1.000000
-97.331703 13.988400 -420.381012 -0.999069 0.042219 -0.008863 4.000000
-80.982399 6.330800 -492.044006 0.362452 -0.670012 -0.647852 4.000000
-56.195900 30.279400 -506.990997 -0.303175 0.090880 -0.948592 4.000000
-64.465599 29.885700 -451.976990 0.033909 0.938921 0.342457 4.000000
-110.007004 15.626800 -102.431000 0.467571 -0.320256 0.823901 4.000000
-55.470299 31.113199 -454.595001 0.317712 0.735286 0.598677 4.000000
-84.686798 24.604200 -356.735992 0.317031 0.945786 0.070567 3.000000
-89.594002 -3.843400 -344.778992 -0.096353 -0.994457 -0.042090 3.000000
-96.149498 19.392900 -335.899994 -0.637793 0.770146 0.009718 3.000000
-59.481201 -2.708300 -119.432999 0.305756 -0.251734 -0.918228 4.000000
-87.806000 18.493900 -249.807999 0.905835 0.420749 0.049328 3.000000
-98.311302 12.758200 -392.661011 -0.998151 0.032328 -0.051484 3.000000
-96.201103 2.580500 -380.765991 -0.787171 -0.613378 -0.064270 3.000000
-81.505501 55.002300 -480.096985 0.756917 0.645678 0.100881 4.000000
-113.723000 40.520199 -124.200996 -0.381843 0.924184 0.008904 4.000000
-61.334900 6.897000 -119.623001 -0.160332 0.203709 -0.965814 4.000000
-98.820198 28.911200 -193.011993 0.478809 0.875614 -0.063575 4.000000
-78.118401 46.658798 -482.660004 0.848619 0.487936 -0.204363 4.000000
-50.494598 9.144900 -496.494995 0.658670 -0.727219 -0.193147 4.000000
-68.747398 2.124700 -448.286987 0.192354 -0.979335 -0.062468 4.000000
-62.249298 21.037800 -89.379402 0.432634 0.683661 0.587738 1.000000
-63.094299 6.053300 -431.188995 0.797052 -0.593390 0.112235 4.000000
-114.192001 28.226700 -167.766006 -0.761855 0.623349 -0.176103 4.000000
-118.013000 17.500000 -160.434006 -0.975095 -0.143636 -0.168994 4.000000
-68.390900 28.083000 -443.053009 0.212179 0.953458 0.214240 4.000000
-92.489601 23.741301 -276.148010 0.241555 0.970043 -0.025821 3.000000
-70.963600 1.399900 -402.664001 0.559702 -0.828064 0.032308 4.000000
-95.847801 3.347900 -391.234985 -0.807367 -0.585348 -0.074338 3.000000
-54.582699 32.058800 -456.321991 0.316466 0.782656 0.536003 4.000000
-34.902100 53.822800 -482.757996 0.670180 0.719584 0.181816 4.000000
-83.545799 29.792200 -424.084991 0.224269 0.970069 0.093106 4.000000
-105.348000 0.229600 -247.636993 -0.635701 -0.771628 0.021777 3.000000
-48.620701 57.203999 -492.009003 0.005632 0.953107 -0.302580 4.000000
-102.248001 -1.373800 -116.620003 0.052042 -0.992049 -0.114584 4.000000
-40.768299 15.220300 -482.881012 0.658728 -0.752232 0.014987 4.000000
-111.415001 30.700399 -169.328995 -0.706310 0.684596 -0.180151 4.000000
-94.681297 0.972200 -95.045898 -0.921588 -0.145481 0.359876 4.000000
-37.382801 27.304100 -497.203003 0.844919 -0.302703 -0.441002 4.000000
-95.119598 28.313400 -437.437988 -0.942157 0.326076 0.077558 4.000000
-109.642998 5.193200 -235.201996 -0.822201 -0.569172 0.005385 3.000000
-125.727997 29.461000 -138.207001 -0.580745 0.346633 -0.736601 4.000000
-86.475800 19.718000 -289.307007 0.886909 0.446579 0.118153 3.000000
-106.310997 23.350700 -110.242996 0.719960 0.276973 0.636352 4.000000
-72.200104 1.273900 -386.946014 0.608573 -0.792915 0.030415 3.000000
-85.114403 1.469400 -471.446991 0.254401 -0.963535 0.082947 4.000000
-85.713303 -3.697200 -356.497009 0.028307 -0.999140 -0.030299 3.000000
-43.090401 57.468300 -484.635986 0.119377 0.989264 0.084300 4.000000
-99.020203 25.736200 -114.180000 0.273232 0.483047 0.831871 4.000000
-91.801300 22.956400 -345.989990 -0.670063 0.740641 -0.049677 3.000000
-96.232300 -3.009500 -114.990997 -0.340355 -0.876618 -0.340144 4.000000
-97.148300 16.386101 -416.153015 -0.991125 0.132185 -0.014080 4.000000
-88.827499 -2.522500 -256.102997 0.578720 -0.809585 0.098265 3.000000
-124.862000 19.867800 -140.313004 -0.877789 0.069746 -0.473942 4.000000
-103.503998 26.682501 -213.460007 -0.399170 0.906216 -0.139413 3.000000
-85.091301 17.469900 -168.751007 0.977595 0.203998 -0.051886 4.000000
-90.276299 -3.351700 -353.492004 -0.228443 -0.972284 -0.049775 3.000000
-130.279999 19.147200 -118.342003 -0.950813 0.102781 0.292218 4.000000
-32.722500 41.440701 -481.653015 0.948389 0.311560 -0.059069 4.000000
-87.448799 0.781000 -437.317993 -0.268451 -0.960539 -0.072794 4.000000
-81.679802 20.844900 -153.880997 0.780092 -0.525471 -0.339612 4.000000
-85.427002 13.828300 -224.414001 0.931802 0.362154 0.024275 3.000000
-83.133102 -1.768400 -407.040985 -0.028150 -0.997730 -0.061167 4.000000
-66.572502 3.036900 -461.003998 0.080329 -0.996740 0.007538 4.000000
-112.737000 22.119801 -202.729996 -0.811179 0.575086 -0.106139 4.000000
-88.368401 -10.790000 -94.987099 -0.704688 -0.649346 0.285945 4.000000
-100.945000 40.179401 -503.239990 -0.241277 0.131833 -0.961460 4.000000
-80.113701 18.976700 -342.781006 0.844362 0.516310 0.143098 3.000000
-69.542801 35.209900 -465.593994 0.045927 0.903872 0.425330 4.000000
-81.846397 14.921600 -149.100998 0.969406 -0.081657 -0.231481 4.000000
-103.849998 53.918598 -494.936005 -0.712239 0.519601 -0.471943 4.000000
-51.605598 35.683998 -463.957001 0.143019 0.776976 0.613070 4.000000
-76.716003 16.950001 -356.135986 0.791851 0.597525 0.126237 3.000000
-87.522499 0.611000 -128.563004 -0.027542 -0.955864 -0.292514 4.000000
-93.431396 24.504801 -199.587006 0.549089 0.833162 -0.065894 4.000000
-104.132004 12.689800 -303.281006 -0.831659 0.547556 -0.092337 3.000000
-83.060699 5.327600 -254.302994 0.961389 -0.265147 0.073672 3.000000
-123.120003 24.801201 -142.591003 -0.867419 0.213295 -0.449545 4.000000
-102.296997 11.167600 -476.286987 -0.947502 -0.244226 0.206380 4.000000
-100.389000 0.669500 -133.177002 0.192709 -0.980053 -0.048575 4.000000
-55.393398 38.101501 -505.989990 -0.275664 0.222896 -0.935054 4.000000
-79.512398 -15.137500 -112.686996 -0.352190 -0.774664 -0.525222 1.000000
-98.609802 18.704399 -449.613007 -0.993255 0.006106 0.115791 4.000000
-83.547203 -5.334100 -118.841003 -0.301169 -0.618481 -0.725795 4.000000
-70.034302 16.290400 -500.532013 -0.410652 -0.255308 -0.875318 4.000000
-109.762001 1.575300 -126.075996 -0.629822 -0.674471 -0.385244 4.000000
-77.690498 26.122101 -103.065002 -0.396448 0.917347 -0.036103 4.000000
-96.185501 -4.260500 -295.416992 -0.289501 -0.956395 -0.038711 3.000000
-85.035301 11.600900 -217.514008 0.989708 0.135811 0.045085 3.000000
-125.744003 9.524500 -123.693001 -0.757922 -0.638171 0.135248 4.000000
-44.648701 55.974400 -494.216003 0.131370 0.890809 -0.434972 4.000000
-77.449501 6.609900 -316.282013 0.997274 0.012247 0.072767 3.000000
-71.247101 1.168700 -403.953003 0.522262 -0.852193 0.031767 4.000000
-57.841202 4.347600 -84.348701 0.643753 -0.030032 0.764644 1.000000
-91.735802 -6.873700 -112.027000 -0.499155 -0.770009 -0.397405 4.000000
-102.242996 40.845200 -134.167999 0.252219 0.951888 -0.174056 4.000000
-60.264599 3.051400 -469.183990 0.266251 -0.927452 0.262569 4.000000
-74.444099 39.143501 -486.149994 0.758371 0.478269 -0.442869 4.000000
-94.838898 -4.033900 -313.191986 -0.245270 -0.968816 -0.035193 3.000000
-36.061501 27.001499 -494.360992 0.855806 -0.406265 -0.320226 4.000000
-84.927002 35.590500 -155.899002 0.078453 0.961279 -0.264173 4.000000
-66.039001 16.370800 -409.626007 0.907815 0.373995 0.189734 4.000000
-95.007698 4.537900 -414.033997 -0.818908 -0.570431 -0.063231 4.000000
-64.793098 14.574500 -412.792999 0.948900 0.241820 0.202760 4.000000
-86.695396 2.165300 -234.080994 0.747214 -0.658416 0.090332 3.000000
-81.145897 20.858999 -129.177994 0.624611 0.780776 0.015786 4.000000
-117.598000 13.257100 -156.662003 -0.894371 -0.394183 -0.211470 4.000000
-85.550499 15.195500 -250.697006 0.814701 0.579409 0.023415 3.000000
-65.068604 0.118700 -80.236702 0.350631 -0.131013 0.927304 1.000000
-31.503000 37.442101 -478.365997 0.989590 0.015164 -0.143116 4.000000
-59.339100 -2.534700 -85.145897 0.664903 -0.392903 0.635241 1.000000
-104.042999 6.453700 -322.444000 -0.993430 -0.085515 -0.076049 3.000000
-79.563301 32.134701 -141.742004 0.345212 0.648593 0.678348 4.000000
-89.488800 34.184799 -159.205994 -0.076319 0.916345 -0.393048 3.000000
-94.952400 2.322800 -154.703995 -0.221191 -0.967008 -0.126370 4.000000
-110.792999 32.013599 -166.947006 -0.667733 0.718589 -0.194323 4.000000
-82.202103 -15.413000 -109.234001 -0.531530 -0.790984 -0.303020 4.000000
-91.302002 -4.987100 -284.432007 0.079553 -0.996806 0.007052 3.000000
-103.441002 13.086700 -486.196991 -0.980667 -0.179430 -0.078088 4.000000
-89.087898 21.010300 -207.223999 0.812364 0.582095 -0.035084 3.000000
-79.345497 6.998100 -295.018005 0.994816 0.047212 0.090068 3.000000
-89.566498 4.000000 -158.037003 0.653687 -0.752586 -0.079423 4.000000
-75.201599 38.844002 -469.699005 0.210853 0.787222 0.579502 4.000000
-64.542198 2.893400 -466.312988 0.092366 -0.988573 0.119128 4.000000
-97.275902 8.459700 -461.462006 -0.863809 -0.473740 0.171474 4.000000
-71.670700 2.885300 -375.880005 0.797444 -0.598030 0.080270 3.000000
-80.948898 15.367400 -317.312988 0.809804 0.577715 0.102294 3.000000
-91.787598 48.178799 -501.220001 0.182155 0.419668 -0.889212 4.000000
-88.144897 19.155701 -207.891006 0.890549 0.452286 -0.048586 3.000000
-69.963303 9.070700 -79.613998 0.093717 0.219127 0.971185 1.000000
-71.226700 2.553100 -382.347992 0.745479 -0.663150 0.067032 3.000000
-107.656998 9.867000 -282.450989 -0.950021 0.300598 -0.084272 3.000000
-74.399399 -15.134000 -114.431999 -0.072680 -0.797103 -0.599453 2.000000
-84.818901 10.340600 -160.533005 0.916229 -0.357097 -0.181677 4.000000
-82.470802 -2.875900 -333.286011 0.428733 -0.902987 0.028319 3.000000
-94.092300 36.680901 -130.550995 0.702616 0.651903 0.285224 4.000000
-87.352402 17.581699 -206.873993 0.903671 0.427446 -0.025862 3.000000
-102.070000 52.179100 -477.309998 -0.753886 0.640271 0.147339 4.000000
-52.453400 1.250700 -95.844597 0.865216 -0.444368 0.232248 1.000000
-102.157997 31.983601 -176.977997 0.310775 0.948459 -0.062003 4.000000
-83.897102 15.904800 -156.987000 0.978703 0.005264 -0.205212 4.000000
-97.074799 1.916100 -473.265015 -0.639978 -0.689306 0.339538 4.000000
-103.405998 29.886700 -102.564003 0.991398 -0.129137 0.021302 4.000000
